-4.736780 -1.600910 2.299361
4.380785 -2.410130 7.388459
-0.839370 -4.929042 6.669387
-4.880546 1.086402 6.826765
2.087915 -4.543194 6.650309
4.829509 -1.294544 11.430161
0.109380 4.998803 0.924362
-4.857621 -1.184703 8.991943
-2.563119 -4.293067 10.313043
-1.420379 4.794009 0.024558
-4.709231 1.680220 1.828672
-0.531143 4.971709 10.926688
3.072285 3.944752 7.166381
-4.764322 -1.516984 7.007666
3.732452 -3.326981 10.654480
-4.641845 1.858299 4.851098
3.206267 3.836646 1.264551
4.856574 -1.188986 7.763349
1.555891 -4.751758 6.220241
-4.611878 -1.931470 3.803814
4.402960 2.369376 0.334434
-2.935183 4.047802 4.797189
3.110327 3.914827 5.975798
4.610058 1.935812 0.882684
4.928313 -0.843643 9.873322
-4.997781 0.148940 5.652453
-4.305260 -2.542585 9.017911
4.749093 -1.564006 9.113588
-3.617133 3.452007 5.673207
2.675224 4.224118 6.479967
0.459141 -4.978874 6.852344
-4.999776 -0.047279 5.636641
3.808488 3.239663 7.301514
4.989749 -0.320001 0.757182
1.077770 -4.882460 3.170641
0.892441 -4.919710 10.023008
4.811689 1.359283 3.613319
3.014293 -3.989240 7.488076
1.518331 -4.763892 3.413047
-4.999939 0.024655 5.320949
-3.941623 -3.076298 4.945009
3.596275 -3.473731 7.343078
0.172855 -4.997011 11.159168
-2.394649 -4.389266 2.775051
-3.816070 3.230730 4.797926
4.882638 1.076962 0.540710
-4.720131 1.649352 2.763681
4.357293 -2.452344 0.603577
-1.446083 4.786318 10.230773
-3.181895 -3.856883 7.546502
-2.986995 -4.009721 4.010828
2.383749 -4.395195 8.696699
0.237292 4.994366 6.395838
-4.998951 0.102393 11.330968
3.990672 3.012397 2.409066
0.800664 4.935477 6.599406
-4.058302 -2.920648 7.358151
-4.752895 1.552415 10.401903
-4.900070 -0.994641 0.457327
0.818386 -4.932570 3.321173
-2.788641 -4.150118 4.233177
2.517283 -4.320103 0.464323
4.601760 -1.955455 10.872575
-4.437687 2.303679 8.944746
-1.401973 4.799424 8.707512
4.868242 1.140271 1.713006
4.128002 2.821277 7.539412
2.508208 4.325378 7.616511
-4.930431 0.831172 0.670099
-4.569294 -2.030161 3.315644
-0.271988 4.992597 7.881461
1.502482 4.768915 11.231358
-1.898527 4.625537 2.744208
4.202829 -2.708547 8.071972
1.381474 -4.805365 5.482579
0.885958 -4.920882 10.270011
-3.320493 -3.738225 0.141417
4.725407 -1.634175 9.978614
2.383938 -4.395093 2.935963
-1.520324 4.763257 9.978035
0.307653 4.990526 8.061135
2.416449 -4.377302 6.820412
-4.381198 2.409379 5.648099
0.132021 4.998257 9.389815
0.939505 -4.910940 9.610165
-4.837822 -1.263122 3.954438
4.937749 0.786535 10.606468
1.742239 4.686641 3.875780
4.498586 2.182367 1.227871
-4.813416 1.353155 4.975955
2.041921 4.564051 0.184534
4.879309 -1.091946 8.166582
4.774178 1.485673 2.370049
3.255709 3.794780 2.057111
-2.109329 -4.533291 8.408370
3.239620 3.808525 5.530240
3.706587 3.355773 3.872424
-1.834442 -4.651325 11.862555
-3.219657 -3.825416 10.763900
3.417114 3.650114 11.862808
3.054634 3.958435 8.245954
-0.559151 -4.968637 11.657949
4.999567 0.065806 7.575101
4.672421 1.780022 9.953664
-0.971799 4.904651 1.093688
4.299555 -2.552220 7.192830
1.773957 4.674728 8.149711
-0.571021 4.967286 5.064539
-0.533414 4.971466 2.022520
4.735220 -1.605520 8.267052
1.787304 4.669641 7.891659
4.862405 1.164912 5.219209
1.354084 4.813154 10.140976
4.343544 2.476616 2.725822
-2.765157 4.165802 10.362606
-4.758889 1.533941 5.777312
-4.898568 1.002013 9.327516
0.073411 4.999461 1.920293
0.402139 -4.983802 3.581766
2.399938 4.386376 11.775386
-4.980709 -0.438788 8.512494
-1.620454 -4.730130 4.652903
4.872535 1.121786 8.548380
4.368669 -2.432023 1.532474
-4.285371 -2.575964 11.892060
3.477574 3.592559 4.738726
3.024625 -3.981412 10.150530
-1.755955 -4.681519 8.986545
-4.357491 2.451994 11.718580
-4.371930 2.426156 0.514379
-1.002680 -4.898432 7.044267
-3.637891 -3.430124 1.465159
1.712745 -4.697500 0.574344
-4.945517 -0.736111 0.552219
2.557202 4.296594 11.586466
3.874821 -3.160026 5.479661
4.234809 -2.658268 1.063805
-4.930311 0.831888 2.901643
4.997281 -0.164876 9.530460
2.159843 4.509443 9.398913
-4.202009 -2.709819 8.259303
-4.882767 -1.076377 10.320898
-4.548215 2.076955 6.799641
4.725832 -1.632947 0.895203
3.142384 -3.889141 3.198663
-4.668231 -1.790982 6.846441
-4.820360 -1.328206 10.300991
-4.038129 2.948477 11.626791
3.870044 3.165875 10.887180
4.462396 2.255442 1.039278
-3.247194 -3.802069 8.323451
-4.999756 0.049402 1.942930
1.950529 -4.603850 9.077658
0.869930 4.923741 11.277466
4.998966 -0.101696 5.084538
4.571296 2.025649 7.540978
-4.924095 0.867922 3.174842
-2.407965 -4.381975 4.257900
-3.485971 3.584411 7.571897
-4.639752 -1.863520 2.471253
-2.800099 4.142396 5.304992
1.911873 4.620037 10.035020
4.782618 -1.458275 10.362352
4.450034 -2.279735 11.867494
-1.689024 -4.706081 5.275187
4.988979 -0.331795 5.445156
-3.110778 -3.914468 4.347630
-4.341999 2.479323 10.624791
-4.734985 1.606212 3.237891
-1.486408 -4.773949 9.980211
-0.018258 4.999967 8.872508
-4.825974 1.307661 2.948730
-2.523656 -4.316383 8.655761
-3.881630 -3.151658 9.607943
-0.659010 4.956380 6.813962
-1.051343 -4.888218 3.740328
3.845474 -3.195674 8.111598
4.724864 -1.635745 4.997409
2.066170 4.553124 2.934115
-1.885098 4.631026 9.042979
-4.997333 -0.163286 2.129890
1.482100 4.775288 5.848901
-4.991827 0.285772 2.934769
-4.832837 -1.282064 9.555192
2.409832 -4.380949 9.012908
0.932146 4.912342 7.886855
-4.163800 -2.768171 9.508436
3.673969 -3.391452 11.943834
-0.172135 4.997036 6.123459
1.426286 4.792255 6.004402
4.977924 0.469332 0.322966
4.981446 -0.430343 3.048700
4.956235 -0.660099 5.186595
4.850869 1.212054 2.251422
1.810153 -4.660831 8.313464
-1.026653 4.893463 3.913942
4.488993 -2.202030 10.784688
4.936109 -0.796758 3.373596
-3.680511 3.384352 7.896009
0.901806 4.918002 6.996969
3.658085 -3.408580 0.446329
4.934583 0.806155 5.774081
3.765172 -3.289906 10.430196
1.098515 -4.877834 5.258511
0.633564 -4.959697 7.427824
2.197295 4.491313 3.958518
4.961417 0.619949 4.581558
2.011455 4.577559 7.238263
-2.260732 -4.459719 8.207858
1.802854 4.663659 2.323587
4.997946 -0.143310 5.493081
4.692578 1.726184 1.471233
4.936596 0.793737 9.623134
-2.635712 -4.248885 7.927422
3.086536 -3.933611 4.687394
-4.645381 1.849441 3.409924
1.882639 -4.632026 5.798510
1.573467 -4.745967 5.504464
-4.765418 1.513537 2.981751
-3.151322 -3.881903 4.394413
1.321285 4.822262 2.393878
-0.213353 4.995446 10.614323
-0.745831 4.944061 10.447707
1.063546 -4.885578 11.390625
-3.934697 3.085151 3.433180
-1.290200 -4.830671 3.957065
4.800283 1.399028 1.443668
1.293028 4.829915 8.415708
-1.207597 4.851980 4.135231
4.692301 -1.726936 2.625265
1.426209 -4.792278 10.656448
-2.766793 -4.164716 3.750838
1.790535 4.668403 7.155548
-0.914763 4.915609 1.380838
2.847772 -4.109769 3.092697
-4.890271 -1.041752 5.628444
-4.718356 1.654422 7.269016
-4.544642 2.084761 7.714669
-1.213874 -4.850413 8.780989
4.917642 0.903769 7.330855
4.740677 -1.589333 10.387300
2.684186 4.218430 5.766073
-3.929950 3.091196 0.911903
-1.257350 4.839326 7.986201
4.960870 0.624315 8.795804
4.955076 0.668746 3.297812
4.681976 1.754736 9.343487
-4.025477 -2.965727 10.217382
2.991852 4.006098 5.415243
-0.767707 -4.940711 8.331635
0.739322 -4.945038 5.283493
4.865191 -1.153218 7.448410
-4.998219 -0.133447 5.366700
4.172733 2.754687 2.446644
-0.710911 4.949203 10.695322
-4.966035 0.581808 1.644133
-0.356926 4.987244 8.389182
-3.588003 -3.482274 11.264856
-1.343540 -4.816109 5.444608
-4.982934 -0.412758 9.509758
2.937724 4.045958 3.494790
-4.880187 1.088015 10.929916
-4.972130 0.527187 2.071800
-0.220226 4.995148 5.383289
4.439835 2.299536 3.921889
3.566723 -3.504067 1.819406
1.105461 -4.876264 6.285477
-4.964553 -0.594322 3.062725
3.239682 3.808472 0.219210
4.601316 1.956501 5.952487
4.996992 0.173396 3.498339
4.868059 -1.141052 10.991833
0.589275 4.965154 0.104313
4.992586 -0.272180 3.262883
0.623127 4.961019 0.528395
-4.323841 2.510857 0.666154
3.597081 3.472896 6.801659
-4.920246 0.889483 6.182901
4.964412 -0.595494 1.152275
0.446296 4.980042 0.382821
-4.478581 2.223131 2.910865
2.256305 -4.461960 7.837365
-1.266500 4.836939 0.482392
0.890412 4.920078 8.008288
4.396315 -2.381684 2.426476
4.197374 -2.716993 0.376108
4.691977 1.727816 4.841885
4.091059 -2.874585 6.648192
0.212470 -4.995484 3.342952
-3.971929 3.037068 9.054566
-4.765970 -1.511797 4.953710
2.187720 -4.495985 6.476623
3.769949 -3.284431 10.550619
-0.910473 4.916405 8.234397
-4.410570 2.355181 5.288655
-4.212639 2.693264 5.581132
3.119933 -3.907175 8.403627
2.389279 4.392191 8.286157
3.491296 3.579225 0.433869
0.086971 4.999244 7.800512
-4.324237 2.510174 11.968246
-2.748637 -4.176720 8.218807
2.412161 -4.379667 8.806149
-4.629012 -1.890040 4.659601
4.488278 2.203488 4.968899
-0.451250 4.979596 8.743028
-2.062140 4.554951 6.772263
-3.929967 -3.091174 9.767395
4.788353 1.439332 8.328566
-4.701352 1.702141 5.238436
2.835410 4.118306 5.517534
-4.311234 2.532442 5.689428
4.991087 0.298421 3.880133
3.452084 -3.617059 0.785906
4.983698 -0.403434 2.122477
-4.069496 2.905031 11.220414
4.408155 -2.359698 9.066302
4.344470 2.474991 0.973534
4.736580 -1.601503 6.725182
3.996459 3.004715 9.263686
4.046362 -2.937168 2.795461
0.264398 -4.993004 5.728998
-4.848717 -1.220634 4.307182
3.657267 3.409457 8.722777
3.778267 -3.274859 5.002067
-2.274464 4.452731 0.984142
-4.747420 -1.569076 6.725886
-4.093713 -2.870804 10.640568
-4.957475 -0.650726 8.853966
-4.836359 -1.268712 7.586049
0.191140 -4.996345 5.476544
-4.268616 -2.603636 3.559852
0.244294 -4.994028 5.496228
-3.899743 -3.129218 5.460079
-4.627237 1.894381 4.385841
0.921729 -4.914307 5.996852
-4.749043 1.564159 9.466806
-4.146260 2.794374 0.734262
4.057897 -2.921210 3.270952
-2.785419 4.152281 6.587341
3.069846 3.946650 5.914644
2.792245 -4.147694 1.563788
0.711613 -4.949102 5.637972
-4.586291 1.991465 11.307816
0.205625 4.995770 2.631435
-4.905555 0.967226 3.387128
-0.318609 4.989839 0.936486
4.929620 -0.835971 2.562094
-4.878323 1.096342 6.895028
-1.511417 4.766091 9.801117
-1.170275 -4.861117 1.463881
2.673543 -4.225183 1.260819
-0.857654 -4.925894 0.778381
-4.990070 -0.314961 1.772718
-3.271099 -3.781522 3.233388
-3.740521 3.317906 5.466090
1.068170 -4.884569 6.528928
-4.948540 0.715511 1.240395
4.231362 2.663752 11.946841
-3.746166 -3.311532 6.272618
4.557431 -2.056653 11.222349
2.367761 -4.403829 6.285275
4.908753 0.950866 8.783250
-0.703661 4.950238 6.523395
3.741972 -3.316270 9.052078
-3.384196 -3.680655 4.255859
3.610855 -3.458573 11.115368
1.490442 -4.772691 1.500346
4.965176 0.589088 9.008452
-4.973613 0.513009 5.932262
-3.413338 -3.653646 2.051139
-3.875892 3.158712 1.985453
-1.713293 -4.697300 3.723456
-4.984032 -0.399276 0.803314
-4.960115 0.630286 7.859150
4.987358 -0.355337 11.744776
3.678771 -3.386243 8.415861
-1.937359 4.609408 4.721384
-4.763216 -1.520452 3.368248
3.308889 3.748500 9.929525
-0.118642 4.998592 4.405532
3.645322 3.422226 8.902904
4.995454 -0.213172 10.429216
-3.417432 -3.649816 1.269330
4.989217 -0.328201 11.577202
-1.564910 -4.748795 5.264692
4.794572 -1.418478 6.910113
-4.909398 -0.947528 5.675684
-3.419554 3.647829 3.336322
4.381761 -2.408354 3.440275
-0.015047 4.999977 0.167233
3.035791 3.972905 10.692600
-3.945733 -3.071024 7.329331
-4.935534 0.800313 7.911415
-3.940447 -3.077804 3.007103
-3.184781 -3.854500 3.126152
4.934676 0.805588 10.332401
-4.523182 2.130922 2.627700
2.394426 4.389388 8.360269
1.039343 -4.890784 0.574025
1.378747 4.806148 6.309136
-4.411092 2.354203 11.671728
2.421761 -4.374366 7.437910
3.316708 -3.741584 3.216853
4.964096 -0.598120 5.007623
1.976680 4.592683 11.703278
4.784612 -1.451721 2.822614
-2.695919 4.210941 9.828787
-4.903677 -0.976704 9.177981
-1.224409 4.847765 4.627026
-1.992600 4.585798 5.049275
0.428949 4.981566 0.532046
-1.789267 4.668889 8.412436
4.507565 2.163760 10.154982
-4.491141 2.197647 4.898032
-3.368295 -3.695212 0.511884
3.328964 3.730684 9.651700
4.222222 -2.678217 6.111258
4.548511 2.076307 11.439493
-4.995196 0.219119 11.011524
4.512768 2.152887 0.488031
2.971133 -4.021488 5.587870
-2.545865 4.303321 1.311393
-4.271736 2.598514 9.026054
-2.162517 4.508162 1.478496
3.462322 3.607261 6.153535
4.482938 -2.214332 6.591272
4.445532 -2.288503 10.770926
4.247648 2.637704 10.147576
-4.687175 1.740801 9.758538
3.859726 -3.178445 2.814371
4.503137 -2.172961 0.193805
3.506088 -3.564737 5.768941
-0.016908 -4.999971 10.643972
0.418211 4.982479 9.404276
4.096480 2.866854 5.231409
-4.562643 2.045065 11.693535
-0.752311 -4.943079 6.983060
3.302939 3.753744 0.800915
2.900794 4.072517 4.471433
4.905046 0.969805 7.221820
-1.989680 4.587066 8.538711
-0.326415 -4.989334 1.294823
0.129946 -4.998311 5.365875
-3.992799 -3.009577 3.486914
-4.461700 2.256820 5.462389
1.511563 -4.766044 10.178555
-4.853828 1.200149 9.375817
3.570687 3.500028 5.462453
3.199562 -3.842239 7.520587
1.936990 4.609563 7.766112
-3.795777 -3.254547 11.575530
2.401020 -4.385784 1.976847
4.495851 2.187996 0.471251
4.166392 2.764268 5.073567
-0.073113 4.999465 6.564610
3.502219 3.568538 2.502175
3.571901 -3.498789 6.784139
-4.894156 -1.023347 2.054502
1.785530 -4.670319 5.515724
4.067684 -2.907568 0.301311
4.289427 -2.569205 0.736951
4.961001 0.623270 10.672717
-0.397601 -4.984166 2.487620
-1.006437 4.897661 9.661944
-2.915331 4.062124 7.340194
0.372729 4.986088 8.202988
3.024026 -3.981867 9.275331
4.939333 0.776522 0.886693
-4.926387 0.854815 3.889110
-4.955951 -0.662234 6.356355
-0.155423 4.997584 9.841516
-4.809737 -1.366172 11.907085
-3.521435 -3.549576 10.176547
-4.672543 1.779702 9.953734
2.249440 4.465425 2.568679
4.941315 0.763807 6.117377
-0.780774 4.938663 1.138611
2.888405 -4.081313 6.858540
3.266002 3.785925 7.597399
4.356561 -2.453646 4.060133
-3.459782 -3.609697 2.932569
1.804050 -4.663197 4.339186
-4.956562 0.657645 2.175126
-3.667549 -3.398394 7.506580
-3.567534 3.503241 3.195771
3.089846 -3.931012 3.725971
1.242562 4.843144 0.279439
-4.388391 2.396252 9.229059
3.839142 3.203277 10.710748
1.804838 -4.662892 11.021967
4.560515 -2.049805 3.337192
3.679968 -3.384942 10.532915
4.495007 2.189729 8.053900
3.069982 -3.946544 8.246336
3.336125 3.724281 8.238289
-0.749679 -4.943479 1.218249
-4.878981 -1.093411 9.666928
4.931167 -0.826793 3.848883
0.883706 -4.921287 7.763710
-4.968031 -0.564508 3.407025
4.103285 -2.857106 6.546549
-4.934020 -0.809599 6.501557
4.928550 0.842258 7.777730
-4.348731 2.467496 6.109772
-4.999675 -0.056983 4.219394
-2.658191 -4.234858 11.298011
4.347382 -2.469873 11.078978
4.997762 -0.149567 9.992863
4.884519 1.068397 0.199100
4.113490 -2.842393 3.424130
-0.894018 -4.919424 9.397293
-4.916729 -0.908723 1.910395
-4.914628 0.920020 0.980112
-1.180005 4.858764 4.659455
-4.877777 -1.098770 10.261594
-4.398548 -2.377557 2.466354
-3.161463 3.873648 5.052709
0.825454 4.931392 0.249143
-4.966035 0.581800 10.012813
-2.374350 4.400280 5.586146
4.237449 2.654058 3.191443
-4.892887 -1.029395 7.535924
-4.985254 -0.383721 0.832042
-4.565569 -2.038523 7.353992
1.200170 -4.853822 7.208289
0.100177 4.998996 3.114095
1.912331 4.619847 10.041422
-4.865824 -1.150548 11.571822
2.274202 4.452865 4.662416
3.509659 3.561221 8.698304
-2.194917 -4.492476 10.026753
1.516920 -4.764342 2.570992
-4.850127 -1.215017 7.560016
0.887259 4.920647 8.225933
3.369364 3.694237 2.753398
0.597804 -4.964134 8.839662
-3.933485 3.086697 5.067904
-4.926612 -0.853520 6.649100
0.132055 -4.998256 10.382353
4.945469 0.736432 7.979511
-3.561391 -3.509487 5.233575
-0.682117 4.953253 6.555819
2.459184 -4.353437 5.638282
4.812434 -1.356642 8.889106
4.998771 -0.110852 7.581858
2.830624 -4.121597 11.473382
1.802020 -4.663982 5.088004
4.747612 1.568497 11.208685
-3.789800 -3.261505 10.430888
1.454726 -4.783699 9.306357
3.438070 -3.630382 5.179341
4.044372 2.939907 8.158397
-0.475054 4.977381 1.705934
4.648347 1.841975 6.036214
-0.701588 4.950533 11.742227
3.839070 -3.203364 4.977391
2.484149 -4.339240 6.730906
4.918123 0.901145 0.318581
-4.539967 2.094922 1.606990
0.312407 -4.990231 4.996185
4.990984 -0.300129 8.018922
-2.404043 -4.384128 6.625706
-1.124120 4.871997 9.779390
2.172395 4.503410 6.406380
1.992070 4.586028 4.175472
1.783148 4.671229 0.774578
-4.992457 -0.274540 1.476571
-3.145863 -3.886328 6.135717
-4.692144 1.727364 0.673490
0.873437 -4.923120 6.111396
-3.999427 -3.000764 4.571322
4.514641 2.148957 6.418846
4.870133 1.132169 10.387318
-3.504176 -3.566616 5.232894
-3.304780 -3.752123 7.177047
-4.161803 -2.771173 4.063773
-0.914918 -4.915580 1.186687
4.986958 -0.360905 3.608682
3.661371 3.405049 9.675580
-2.868962 -4.095004 2.649099
-2.669908 -4.227481 8.486889
-4.574311 2.018831 8.937533
4.042001 2.943166 0.848566
4.730845 -1.618366 2.064607
-4.998524 -0.121466 9.970567
4.807646 1.373515 10.168689
4.857460 1.185361 10.396824
4.946168 -0.731724 4.795405
-4.286351 2.574334 6.271811
-3.851534 -3.188367 6.289083
-2.195714 -4.492086 7.801609
4.113860 -2.841857 5.359339
4.730058 1.620663 10.735655
-3.974908 -3.033167 2.869504
4.947434 0.723114 6.313392
4.748504 1.565794 5.719608
2.084751 4.544647 5.169256
-3.361498 -3.701396 0.009631
-1.970453 -4.595358 10.844567
4.097643 2.865191 8.182076
4.168166 2.761592 7.993830
4.971779 0.530482 1.492030
3.909398 3.117147 4.604141
-4.529601 -2.117243 10.094041
1.735376 -4.689186 9.686278
4.861223 -1.169836 10.946612
4.970302 -0.544148 5.410372
-3.955123 -3.058922 4.847315
-4.987484 -0.353555 1.738819
-4.638833 -1.865804 0.660955
3.503988 -3.566801 9.272555
-2.132830 -4.522282 5.263587
-2.565057 4.291909 0.089302
-0.962856 -4.906415 3.444855
-4.493866 2.192069 10.296334
-4.391249 -2.391011 11.854184
-3.730137 3.329576 11.595185
-4.740824 -1.588896 8.712917
1.410491 4.796928 4.996634
-2.776753 -4.158082 4.177007
4.473637 -2.233063 2.817859
-0.902171 4.917935 0.434986
-4.040682 -2.944977 9.805030
1.753004 4.682625 6.819151
-4.529759 2.116903 3.746821
1.581727 -4.743221 4.113321
4.380915 -2.409892 7.337442
3.887308 -3.144652 5.266142
-4.557451 2.056609 6.269058
2.341957 -4.417605 11.127353
-1.603989 4.735739 9.578076
3.421089 -3.646388 5.943547
4.987416 0.354518 7.939524
0.069242 4.999521 0.308436
0.752914 -4.942987 3.141742
4.895645 1.016201 0.913592
4.803393 1.388314 1.673613
-4.564528 2.040853 8.429362
-3.096386 -3.925862 11.277707
4.081941 -2.887518 7.995924
1.402473 4.799278 5.829003
1.464397 4.780747 0.830595
4.867871 -1.141854 5.039890
-4.976958 -0.479468 1.967451
-1.257064 -4.839400 11.819836
-1.987989 4.587799 10.390043
4.817553 1.338350 1.809433
-4.272494 2.597267 9.082258
-0.401374 -4.983864 8.457356
4.322411 -2.513318 8.676828
2.143689 -4.517145 5.415309
-4.931369 -0.825589 0.385430
-3.949524 3.066148 5.963008
3.937941 3.081010 9.109568
-4.748053 -1.567162 3.359986
1.081771 4.881575 10.491923
-4.580468 -2.004822 9.518271
-2.857542 -4.102981 7.321871
0.683997 -4.952994 2.252286
-1.043182 -4.889966 10.876901
-4.524214 -2.128729 7.364147
3.285690 3.768852 4.597400
-1.060012 -4.886346 10.877017
1.590150 -4.740403 4.674014
-4.136003 -2.809534 10.653372
4.058850 2.919886 2.131108
-2.521885 4.317418 7.471907
-4.999014 -0.099312 1.968318
-0.298984 4.991053 0.741012
-3.902301 3.126027 9.244666
4.962074 -0.614672 2.290708
-4.719050 1.652442 3.016253
-4.742962 -1.582502 5.737120
-1.114058 4.874308 4.566814
3.150563 -3.882519 0.288011
-4.969325 0.553004 4.770323
-3.764410 3.290777 7.248822
-4.170963 -2.757366 6.872812
-4.850993 1.211555 2.853778
4.133387 2.813380 5.277541
-4.760527 -1.528851 10.445889
1.759280 4.680271 6.093485
-4.957290 -0.652131 4.493959
4.073259 -2.899752 1.889446
-4.523563 2.130113 5.903133
4.393151 2.387515 11.331678
-1.876219 -4.634631 10.568859
4.932628 -0.818035 4.804172
-1.612183 -4.732955 1.986536
0.416357 4.982634 9.619872
4.932827 -0.816833 9.696761
-3.796729 3.253436 11.225381
-3.875683 -3.158969 2.317426
4.199763 2.713299 1.748300
-4.998851 0.107167 8.354550
-2.326831 -4.425591 2.150216
4.991986 -0.282970 6.690845
-3.788834 3.262627 1.425814
-4.847425 -1.225753 11.720967
2.178140 4.500634 0.041631
0.465836 4.978252 6.625163
3.953813 -3.060614 7.038577
4.694296 -1.721507 7.449187
2.141833 4.518025 8.623967
2.844268 -4.112194 8.560779
4.917521 0.904425 0.745818
4.407982 2.360021 4.313505
-3.041716 -3.968370 4.615311
-0.237756 4.994344 3.133116
4.981258 0.432516 3.155303
1.623374 4.729128 4.997907
0.465772 4.978258 11.270739
4.928574 -0.842114 1.596628
-4.948646 0.714772 4.305877
0.244011 -4.994042 3.651121
2.314292 4.432161 10.306141
-3.678132 3.386938 7.836382
-2.510957 -4.323783 5.421546
-4.963183 0.605649 4.934297
-3.274508 3.778571 10.237199
4.099904 2.861956 11.875973
-3.453326 -3.615874 6.780928
3.833729 3.209754 5.440612
-4.946750 -0.727778 9.761291
-4.549852 -2.073366 3.152680
-2.648688 4.240808 10.869303
-4.571723 -2.024686 4.769443
3.877666 -3.156535 6.824475
-1.554184 -4.752316 2.105865
-2.876887 4.089440 8.162850
2.848196 4.109474 11.457192
-2.771168 4.161806 2.956838
-2.754396 4.172925 3.452492
4.061364 -2.916389 4.167017
3.540447 3.530614 10.589095
4.985783 -0.376793 2.857634
-0.530043 -4.971826 6.262549
-0.966141 4.905769 2.169612
-4.592662 1.976728 2.472314
4.994246 -0.239797 7.348665
3.569862 3.500869 3.852498
-4.562419 -2.045565 5.653814
-3.958242 -3.054885 1.423086
-0.921166 -4.914413 9.868967
3.253775 3.796439 1.577236
-4.553939 2.064373 2.195005
-0.067511 -4.999544 1.768778
-2.324911 -4.426600 11.591276
-3.810359 -3.237462 3.018044
-4.988941 -0.332368 8.016819
-4.854100 1.199046 1.146504
-4.704740 1.692755 5.140726
-2.640400 4.245973 0.408386
1.795227 -4.666600 5.795796
4.911955 -0.934183 10.083920
-4.770144 -1.498575 10.668734
-1.291401 4.830350 9.807840
-3.968500 -3.041547 3.842901
0.945970 -4.909699 8.738673
2.411086 -4.380259 7.614889
-3.081601 3.937478 3.413576
-1.282525 -4.832715 7.438608
-4.989329 0.326498 5.995764
4.632388 -1.881749 9.736187
-1.797177 4.665850 7.736926
4.966028 0.581866 6.905077
-0.841987 4.928596 4.548676
-4.107360 -2.851245 7.066101
-1.174700 -4.860049 5.729957
-3.445895 3.622955 6.803378
4.451837 2.276214 11.940195
3.000453 3.999660 2.290395
0.857607 4.925902 8.760892
3.145229 -3.886842 11.096481
-3.418441 3.648872 5.161318
-2.944021 -4.041379 11.881432
-4.878868 -1.093912 8.593657
-4.801497 1.394857 11.005113
4.787305 -1.442812 11.860660
-4.825372 1.309880 11.049631
3.111609 -3.913808 6.546416
4.602140 -1.954561 1.823199
1.449061 4.785418 8.067878
-4.397822 2.378899 0.714140
4.910842 0.940015 5.275897
-4.007825 2.989539 7.125086
4.514090 2.150114 6.541594
-0.359313 -4.987073 8.560264
2.132054 4.522648 11.876059
-2.833391 -4.119696 7.504011
-4.933215 0.814485 10.041622
2.208833 4.485650 10.074931
-3.943858 3.073432 11.643072
-2.181447 4.499032 5.201002
0.711498 -4.949118 6.234014
-0.827888 -4.930984 0.449012
-3.756122 3.300234 1.671934
-0.531381 4.971683 6.573970
-0.628893 4.960292 8.327211
0.779324 4.938892 5.294870
1.740253 4.687379 6.473691
0.008777 4.999992 9.768280
-2.358936 -4.408562 3.094180
-4.268854 -2.603246 1.780210
-1.166453 -4.862035 2.284928
-3.221722 -3.823678 6.337063
0.271020 4.992649 1.750542
4.661822 1.807600 4.353684
1.824063 -4.655405 2.865433
1.195604 -4.854949 9.084365
-1.777298 4.673458 9.627162
-4.963458 -0.603394 0.087094
4.017286 -2.976813 3.529593
-0.006167 -4.999996 9.074841
-3.695420 3.368067 4.361510
4.205735 2.704032 10.558137
-3.357834 3.704720 6.152113
-4.998677 0.115004 11.189161
-4.544074 -2.085999 3.030913
3.754186 -3.302436 11.520338
4.970962 0.538082 7.238762
-0.163839 4.997315 9.037067
0.866838 -4.924286 11.135229
4.899236 0.998745 6.299422
-4.698626 1.709652 0.278441
2.598722 -4.271609 9.363558
-4.744774 1.577060 6.045303
4.436197 2.306547 9.004870
-2.081766 -4.546015 6.755176
2.430737 4.369384 6.067989
-2.649641 4.240213 11.904199
-3.472179 3.597773 2.910958
-4.904110 0.974529 9.724683
-0.284880 -4.991878 6.688727
-4.986034 0.373455 6.916852
-1.236467 -4.844703 0.359986
4.384560 -2.403255 3.008998
1.578787 4.744200 8.742714
-3.587430 3.482864 10.889593
-3.197420 3.844022 4.680136
-1.177315 -4.859416 11.867181
4.883461 1.073223 6.729025
4.532477 -2.111078 11.344264
-4.504508 2.170118 9.537719
4.880826 -1.085143 1.266330
4.153701 2.783302 5.914657
4.993185 -0.260971 5.615470
4.399285 -2.376192 0.974853
-1.916142 4.618268 11.564428
1.837116 -4.650269 8.960028
-4.949812 -0.706657 2.995678
-0.100048 4.998999 9.649267
-4.811290 -1.360695 0.475275
2.706305 -4.204273 8.370449
4.918487 0.899158 6.717620
4.999408 -0.076972 1.557785
2.555694 -4.297491 1.087849
-0.365342 -4.986635 5.587466
-3.929669 -3.091554 11.057401
0.167316 4.997200 0.397125
3.502467 3.568294 5.833713
0.448716 -4.979825 11.716177
0.330977 4.989033 3.588656
-3.774426 -3.279284 6.712152
-0.042574 4.999819 3.658888
0.083287 -4.999306 4.234170
-4.457112 -2.265867 6.534416
-3.903994 3.123912 2.171114
1.048335 4.888864 3.575834
-2.847142 4.110205 5.803154
2.011023 -4.577749 1.882444
-3.606248 -3.463377 9.875591
-0.904146 4.917572 2.220289
4.992904 -0.266288 6.261082
-2.689165 4.215257 7.139591
-4.318733 2.519632 3.085097
1.748312 -4.684379 3.512580
2.647617 4.241477 3.255354
-4.709137 1.680486 8.394210
4.120037 -2.832895 11.773741
4.897868 -1.005431 6.111394
1.374520 -4.807358 7.130780
2.223145 -4.478574 7.199550
-4.652729 1.830878 0.602265
4.255342 -2.625274 8.342067
3.327914 3.731620 4.680509
3.884624 3.147968 5.365838
1.296051 -4.829105 10.762503
-1.821175 -4.656535 4.111858
-0.494991 4.975438 6.319976
-4.983640 0.404142 0.058203
-4.390429 2.392516 1.112049
-3.690068 3.373930 11.066698
0.070556 4.999502 3.369631
3.713841 -3.347743 3.532618
3.133404 3.896381 4.138748
-4.816510 1.342101 3.488019
-1.470006 -4.779025 5.123172
-0.588094 -4.965294 6.785015
4.919521 0.893483 11.152045
1.807599 -4.661822 3.690769
2.713938 -4.199350 5.213434
2.475191 -4.344356 2.644606
4.979531 0.451969 9.455681
-2.373179 4.400911 3.710534
-4.224682 2.674334 11.467470
-4.998920 0.103912 11.172898
4.649501 -1.839059 6.195865
-3.197718 -3.843774 10.299685
4.925282 -0.861159 4.519998
2.198595 -4.490677 1.215019
-3.041709 3.968376 9.399673
0.372501 -4.986105 9.737901
3.064099 3.951113 2.284976
4.992016 -0.282454 3.137399
4.890370 1.041290 1.559481
4.602064 1.954740 3.524313
-4.596914 1.966821 6.978280
-4.350303 2.464723 1.450103
0.732063 -4.946118 2.249200
4.883461 1.073222 7.990097
4.878865 -1.093928 9.438119
4.851309 1.210290 7.837431
-0.958331 4.907301 5.487442
-1.152737 4.865305 3.146819
4.071101 2.902781 1.991336
4.841476 1.249045 0.310129
4.152177 2.785574 4.768868
-1.934431 4.610637 0.943783
-3.697037 3.366292 6.888933
3.213813 3.830327 0.087928
2.115497 4.530416 4.313154
-0.084409 -4.999287 3.809644
4.552624 2.067271 0.851134
4.651621 -1.833691 4.719845
4.486972 2.206147 6.163847
-4.980527 0.440851 0.358622
3.619180 -3.449861 1.604915
-0.653236 4.957145 7.297809
-0.046214 4.999786 9.805513
4.850881 -1.212004 11.449517
-2.459421 4.353303 2.984830
0.323091 4.989550 9.056423
-4.611304 -1.932842 8.983730
-4.733723 1.609928 11.333060
-2.175147 -4.502081 7.369147
2.777621 4.157502 2.958438
-4.807501 -1.374020 1.479752
1.282225 4.832794 3.462482
0.772266 -4.940001 6.973928
2.067543 -4.552501 3.706164
-4.743993 -1.579410 8.210323
4.810106 -1.364872 3.080750
4.466534 -2.247236 9.651822
0.279271 -4.992195 11.297069
1.756669 -4.681251 8.491142
4.367833 -2.433524 3.717279
-0.049407 4.999756 7.766647
-4.999431 0.075427 0.348517
-2.035953 4.566716 7.098697
1.438452 4.788617 0.883313
-4.038649 -2.947765 3.530549
2.877674 4.088886 9.056120
0.757438 4.942296 3.216968
-0.952436 4.908448 11.455946
-4.877563 1.099716 9.259499
1.710145 -4.698447 2.659549
3.721888 -3.338795 4.009929
-0.844458 -4.928173 5.339828
2.703027 4.206381 7.424532
4.074927 -2.897408 8.107889
0.644468 4.958292 1.066698
-4.124054 2.827044 3.379445
-2.689900 -4.214788 2.278445
1.373058 4.807776 11.682529
4.967070 0.572900 0.783334
4.394863 -2.384362 10.981929
-4.607652 -1.941531 5.972442
-3.446550 3.622332 3.846956
-2.881037 -4.086518 11.981812
-1.028753 4.893022 5.735849
-3.837702 -3.205003 6.830756
4.979846 0.448481 9.815549
-2.807233 -4.137565 8.035824
-1.612819 -4.732739 6.793848
1.503046 4.768737 2.873684
4.998664 0.115576 1.668556
-4.983985 0.399871 4.482123
1.773692 4.674828 4.591726
4.650249 -1.837167 8.746821
2.293904 4.442747 2.574127
4.424326 2.329235 6.806294
-3.349519 -3.712239 5.849702
-4.990988 0.300064 2.348511
-2.005506 -4.580169 3.705032
-2.048980 -4.560886 0.726265
-1.495485 4.771114 10.726655
4.845516 1.233278 11.522991
-3.931599 -3.089098 10.009021
4.302240 2.547692 9.695973
2.040405 4.564729 10.736857
2.166061 4.506460 8.473854
-4.482492 -2.215235 2.823324
-4.656594 1.821026 3.036635
-2.889421 -4.080594 2.985253
-1.812586 4.659885 4.219560
2.225846 4.477232 3.935294
-4.996033 -0.199137 3.618399
1.106748 -4.875972 6.520840
-4.951615 0.693909 9.999103
4.440183 -2.298864 4.895605
4.665181 -1.798912 0.515524
1.347959 4.814873 10.970205
1.607180 4.734656 5.853029
-2.058322 4.556677 7.668660
3.961292 -3.050928 3.726847
4.993266 -0.259420 0.232624
1.833946 4.651521 4.325894
-4.356165 -2.454349 11.663996
-0.912030 -4.916117 3.684159
-4.329011 -2.501931 5.390021
-4.881090 1.083958 5.575476
-2.645478 -4.242811 1.388121
3.032959 -3.975067 0.332461
4.946447 -0.729835 3.708734
2.649718 4.240164 5.264473
-1.457171 -4.782954 11.985933
3.814875 -3.232140 3.524033
-4.529868 -2.116671 6.716328
-3.945171 -3.071746 1.524223
-4.940967 -0.766060 7.354786
-4.497511 -2.184581 2.962590
1.569816 4.747176 5.095605
-1.624084 4.728885 0.716382
-0.649258 -4.957667 2.591583
1.958650 4.600401 5.540450
-4.822181 1.321578 5.844589
3.144396 3.887515 0.551406
-2.011229 -4.577659 4.912528
-4.574085 -2.019344 7.633413
-4.936196 0.796219 11.120886
3.042803 -3.967537 9.758501
4.912165 -0.933081 4.028494
-1.397529 -4.800720 11.195294
2.307345 -4.435782 11.833981
-3.985510 -3.019223 8.241390
-1.206942 -4.852143 4.350628
-3.617944 3.451157 7.461818
-0.432546 -4.981255 7.600383
4.988179 0.343614 10.944094
-3.726430 3.333724 5.008164
-4.475762 -2.228801 8.663064
4.977472 0.474099 6.363197
2.699926 4.208372 6.057072
-3.097498 -3.924985 3.029337
4.999856 0.037976 8.414756
-0.486614 4.976264 8.666284
-4.995378 -0.214941 1.160602
-4.308372 2.537308 4.412513
3.896087 -3.133769 5.021050
4.689059 1.735721 0.568291
4.696022 1.716793 9.053980
-3.883874 3.148892 1.481900
1.477015 -4.776864 6.603460
-3.920930 3.102629 5.651156
4.717191 -1.657741 6.590484
-3.151268 3.881947 7.190551
-1.298535 -4.828437 5.864456
-4.650612 -1.836248 5.329427
4.571124 -2.026036 2.555095
4.969468 -0.551710 10.156259
4.934980 0.803722 7.824996
4.995248 -0.217932 0.380446
4.692749 -1.725720 11.121995
-3.400864 3.665259 5.571473
3.457678 3.611712 1.639201
-2.180305 4.499586 2.922187
-1.502761 -4.768827 10.496472
4.730405 1.619651 1.672925
-3.495008 -3.575600 9.104559
-0.597101 4.964219 0.944089
4.764933 1.515062 2.781846
-0.029243 -4.999914 3.463153
2.376150 4.399308 6.818758
-4.999669 0.057571 0.521213
-1.474932 -4.777507 1.457515
4.572503 -2.022923 5.032713
3.375802 -3.688355 11.143475
-0.116296 -4.998647 10.396844
-4.559414 -2.052254 7.912366
-4.958901 0.639766 8.951593
-3.409634 3.657102 11.837070
2.194215 -4.492819 4.954692
-0.948924 4.909129 6.808530
-4.649478 1.839119 4.935621
4.075364 -2.896793 5.563687
-1.581274 4.743371 7.545025
4.771405 1.494554 2.497278
-1.615194 4.731929 10.764985
4.989440 0.324792 0.944713
-3.366747 -3.696622 10.994502
4.596475 -1.967845 5.172131
-4.745442 -1.575049 7.100231
-2.572362 4.287535 6.775960
1.206660 -4.852213 2.229295
-4.745651 1.574420 9.902456
1.482813 4.775067 11.125199
-4.937485 0.788192 7.097907
-4.995242 -0.218087 11.629257
-2.632059 -4.251149 2.710970
4.993037 -0.263781 10.369434
4.107684 -2.850778 6.863884
4.992394 0.275691 1.055327
-2.339207 -4.419062 8.738503
4.977403 0.474825 10.664975
4.859156 -1.178391 4.108687
-3.182116 -3.856700 1.462945
3.128252 3.900518 5.816625
-1.358515 4.811906 6.864521
4.942083 0.758827 5.929280
-3.905338 -3.122232 11.735427
4.202935 2.708383 4.882522
1.123369 -4.872170 11.152138
1.996919 -4.583919 11.552198
4.765136 -1.514423 0.859459
3.582838 -3.487588 4.440197
-4.819494 1.331344 11.623599
4.886601 -1.058833 1.962384
-3.529296 -3.541761 7.751713
-4.709816 1.678580 5.502212
4.253312 2.628562 11.840366
-3.600134 3.469731 7.649927
-1.137604 4.868866 6.707056
3.885945 -3.146336 6.082812
4.693350 -1.724084 2.537025
-1.046260 4.889309 10.776157
0.191475 -4.996332 11.525324
-4.895606 1.016385 10.656883
3.460859 -3.608664 9.858257
4.719773 -1.650375 7.615745
4.996363 -0.190678 0.825291
4.674218 1.775298 11.083528
-2.794638 4.146083 4.178450
4.615824 -1.922022 2.859617
-0.284231 -4.991915 11.333252
4.047610 2.935448 6.547533
-2.581114 4.282272 0.799320
1.597073 4.738075 1.422149
-3.142056 -3.889407 3.815840
4.979371 -0.453719 9.477392
4.290503 -2.567409 6.527333
2.233400 -4.473469 7.448951
-4.383335 -2.405488 8.971248
3.513155 -3.557772 11.618182
-2.533160 -4.310812 11.921790
-4.997079 0.170883 7.910404
-3.163556 -3.871939 2.514421
-2.622054 -4.257327 5.424026
-2.717789 -4.196859 2.976105
4.733424 1.610806 8.826365
-2.946999 -4.039208 5.393326
-4.462591 2.255056 1.053815
4.890991 1.038370 4.486289
-0.994830 4.900032 2.040686
-1.171020 -4.860937 7.511671
-0.699549 -4.950821 8.309363
-4.441216 2.296868 11.005096
4.927010 0.851216 5.122696
-1.641832 4.722752 8.109053
-4.392980 2.387828 7.322149
-4.995250 0.217888 7.346031
4.018524 -2.975141 0.386264
-4.998508 -0.122137 9.928403
-4.999944 -0.023564 0.972431
-1.868074 4.637920 7.277596
3.991228 -3.011660 11.150533
1.857871 4.642016 3.005902
1.114563 4.874192 6.116621
-0.670991 -4.954773 9.531013
-4.996666 0.182551 11.406696
-4.863342 -1.160994 5.408072
-4.964931 0.591150 6.794652
-4.520223 2.137191 2.228431
-3.420619 -3.646830 3.869038
2.657822 4.235090 3.361832
4.856980 1.187326 2.374998
2.890033 -4.080160 8.593240
3.531669 3.539395 0.800476
-0.055050 -4.999697 0.409523
-0.587084 4.965414 8.558650
2.428106 4.370847 5.056033
1.702300 4.701295 6.369733
-0.456899 -4.979081 6.637843
4.310564 2.533583 1.185701
4.717722 1.656230 1.205249
-4.827038 -1.303728 10.228656
-0.197984 4.996079 3.224168
0.905819 4.917265 10.936603
1.088933 4.879982 5.042709
3.102959 -3.920669 4.211650
3.750911 -3.306156 1.209001
1.359401 4.811656 8.566558
0.130590 4.998294 8.143906
-2.487569 -4.337280 3.809856
-4.748777 1.564965 3.300798
4.776579 1.477936 8.145347
-4.631192 1.884690 0.599381
-4.935872 0.798225 6.671426
-2.916242 -4.061469 0.469534
-4.052964 -2.928050 1.345310
2.998770 -4.000922 11.658192
2.522754 -4.316910 0.625450
-3.907904 3.119020 0.086072
-2.003714 4.580953 7.469308
4.826061 -1.307340 0.398642
-0.883743 -4.921280 9.852260
3.345423 3.715931 6.824527
-3.895682 -3.134272 11.798574
2.928995 4.052282 7.020683
-1.194638 4.855187 6.312894
-3.830101 -3.214082 5.643485
-4.238749 -2.651982 10.584255
-4.999980 -0.014281 0.970447
0.913676 -4.915811 4.294749
3.929053 -3.092336 7.702554
-3.395212 3.670495 2.098851
1.865374 -4.639006 9.123656
-4.815704 1.344989 9.396190
4.514898 -2.148417 4.042353
4.839131 1.258097 3.918866
3.905447 3.122096 10.221101
-3.432241 -3.635893 10.614170
4.786038 1.447012 11.366765
4.414948 -2.346963 7.930478
4.988392 -0.340508 0.351200
-0.276579 4.992345 5.787857
-1.219421 -4.849022 7.867329
4.911616 0.935966 2.391892
-0.421146 4.982232 9.086865
4.154744 -2.781744 2.287829
1.211531 -4.850999 2.440713
-0.012179 4.999985 3.688928
1.993819 4.585268 0.876713
-4.794759 -1.417847 6.968739
-4.927536 0.848166 10.319816
4.920686 0.887043 3.246347
3.906857 3.120331 6.671394
-4.999759 0.049102 4.306750
-1.351084 -4.813997 2.569716
2.585665 -4.279525 2.273529
-3.179042 -3.859234 3.752510
4.991484 0.291691 4.228387
3.070267 -3.946323 4.749578
-4.941768 0.760872 6.181755
2.123641 -4.526605 4.769584
-3.866866 3.169755 0.241598
-3.609407 -3.460084 7.323297
-0.839988 -4.928937 6.658152
-4.586601 -1.990751 0.496891
3.374511 3.689536 3.085716
-3.660800 -3.405664 8.640376
4.049497 -2.932843 6.026518
0.070376 4.999505 9.041763
-4.861751 1.167639 7.043201
4.999992 -0.008914 11.778083
4.955890 -0.662685 3.980679
4.075361 2.896796 11.852554
-1.172613 -4.860553 11.535239
-1.394485 4.801605 5.375580
2.275571 4.452165 8.243768
4.406822 2.362185 1.043311
4.996310 -0.192052 5.110774
-0.915304 4.915508 8.512615
4.778070 -1.473107 3.605858
0.117985 -4.998608 10.089717
2.684520 -4.218217 3.776947
-2.002710 -4.581392 10.340761
3.262666 -3.788800 3.101084
1.435737 4.789432 3.204558
-2.771937 4.161294 8.626107
-4.969335 -0.552914 7.545298
-0.293476 4.991380 3.471441
-4.990964 -0.300464 7.326289
3.597528 3.472433 0.720889
-3.044680 3.966097 0.609331
-3.912637 -3.113081 1.433116
-4.935911 -0.797986 2.277126
4.888827 -1.048510 5.283748
4.834110 1.277254 10.006513
-4.651304 1.834496 11.060601
2.277779 -4.451036 7.875471
4.078772 2.891992 10.443158
0.840444 4.928859 1.129348
4.945687 0.734969 6.997786
-2.422552 -4.373927 1.333698
-4.563158 2.043916 11.786395
-4.884578 1.068129 4.843011
4.341540 2.480128 0.328117
-2.576965 -4.284769 6.190657
-1.568790 -4.747515 10.596406
0.217848 4.995252 4.911850
-3.527958 3.543094 9.100486
-4.638733 -1.866054 0.667691
-4.869451 1.135096 6.329949
-3.327726 -3.731788 4.779830
2.639946 -4.246255 5.140548
-3.443810 -3.624938 4.852401
4.041755 2.943504 3.016497
1.761264 -4.679525 6.494245
-4.776023 1.479731 0.472447
-0.474784 4.977407 5.665719
-0.860866 -4.925334 2.446767
-2.230534 -4.474898 11.451615
0.235966 4.994429 10.689422
4.991829 -0.285736 1.775282
-4.474436 -2.231461 9.442732
-3.032050 -3.975761 2.706154
4.378812 2.413713 8.755024
3.280185 -3.773643 2.886068
-4.948267 0.717396 4.770043
4.990899 0.301545 10.297641
4.949908 0.705983 8.882077
3.478318 -3.591838 6.469727
-4.145707 2.795194 2.081912
4.609911 1.936161 6.125312
-4.999028 0.098602 9.549582
4.473265 -2.233807 7.133072
1.060354 -4.886272 6.619111
3.473315 3.596677 10.647605
1.132354 4.870090 7.227344
-2.394031 -4.389603 11.807083
-4.948310 -0.717095 11.319283
-4.795838 -1.414193 10.807079
3.230505 3.816260 11.140454
1.418889 -4.794450 7.203155
2.856221 -4.103901 2.307536
4.549885 -2.073294 5.001423
-1.168839 -4.861462 11.061878
4.801660 1.394297 0.497462
4.990158 0.313559 11.625753
4.162299 2.770427 9.120037
2.776144 4.158488 3.439616
-0.738337 -4.945185 3.688846
0.081782 -4.999331 8.163657
4.423631 2.330555 9.997379
1.108207 -4.875641 8.009142
-4.513605 2.151131 4.241727
-0.175964 4.996903 0.042304
4.420039 -2.337360 7.113797
-3.540384 3.530678 11.531790
-2.028738 -4.569926 2.288451
1.720931 4.694507 6.690775
-4.892611 1.030707 11.174256
-4.711275 -1.674481 4.506109
-0.706572 -4.949824 8.116942
-4.999708 0.054009 7.179791
0.030644 -4.999906 1.590582
0.093545 -4.999125 0.128625
-0.686958 -4.952584 2.997148
-1.964269 4.598005 4.294033
4.744501 1.577880 10.886895
-4.999238 0.087318 3.757602
-2.269292 4.455369 4.799589
2.665184 4.230461 9.937010
-0.294548 4.991317 10.274978
3.919396 -3.104566 3.218889
3.871189 -3.164475 9.138518
-2.353390 4.411525 1.683810
3.737957 3.320795 6.399810
4.544603 -2.084847 6.484616
-4.287743 -2.572014 1.447258
-1.497882 4.770361 6.978847
-4.918057 0.901510 11.433468
-2.839068 4.115786 1.066647
1.042311 -4.890152 3.108737
-3.504546 -3.566253 5.089836
-4.623872 -1.902578 11.993733
2.126922 -4.525064 3.265593
-1.007338 4.897476 1.841700
0.698253 -4.951004 5.057000
-1.105889 4.876168 2.360355
4.239842 -2.650235 4.372711
4.261242 -2.615686 2.669676
-1.950120 4.604024 4.323510
-0.322991 4.989557 4.060414
-4.275840 -2.591755 6.446022
4.419779 2.337852 8.046450
-2.121423 4.527645 9.393160
4.104547 2.855292 1.579431
2.066068 -4.553171 5.355054
-4.899569 -0.997107 11.093430
-4.556440 2.058847 2.835211
-2.780812 -4.155368 9.984423
-1.676784 -4.710456 4.292837
-1.417030 4.795000 2.171207
-4.740098 -1.591059 9.011382
-0.324170 -4.989480 2.476399
4.601482 1.956110 11.442505
-3.987039 -3.017204 5.320095
-4.685819 1.744448 7.563894
4.999999 -0.002911 7.223664
-4.796195 -1.412979 9.666452
1.991873 -4.586114 7.358134
-0.043656 -4.999809 7.027518
-4.995738 0.206390 0.240709
-4.028391 2.961767 7.745545
2.334295 4.421659 8.121423
-4.870612 1.130108 2.927877
-0.934128 4.911966 1.070242
-4.942298 0.757424 6.911484
0.227322 -4.994830 5.891074
4.323762 -2.510991 11.154230
-4.456955 2.266176 8.394311
3.834189 -3.209205 10.197225
-3.492286 3.578259 5.692020
1.199619 4.853959 2.233132
2.860963 -4.100596 4.518974
4.062775 2.914423 1.859187
3.955841 3.057994 10.086043
4.793912 -1.420706 11.744447
-0.646921 4.957973 0.192287
0.346622 -4.987971 4.362063
4.968110 -0.563809 2.259412
4.981448 -0.430316 8.096337
1.902322 -4.623978 0.170495
4.424077 2.329708 4.246528
4.014161 2.981025 6.362980
-4.357051 2.452774 8.829585
-0.698918 4.950910 8.851948
2.082675 4.545598 0.722521
-4.475130 -2.230070 2.504349
-2.850956 4.107560 11.941588
-0.032690 -4.999893 0.196546
-4.995277 -0.217266 3.493923
1.446207 4.786281 11.602526
-4.426980 -2.324187 7.744762
-4.093971 -2.870436 11.938606
1.791127 4.668176 10.560786
-4.947740 -0.721017 4.087266
-4.806935 -1.376000 11.012615
2.458996 4.353543 4.040763
4.039923 -2.946019 2.766854
-4.676121 1.770281 1.767585
-2.385219 4.394398 1.244779
-3.970164 3.039374 0.531602
-4.153870 2.783049 1.238469
4.421279 -2.335014 3.526197
-3.929093 -3.092285 9.389262
3.798528 -3.251336 3.260280
2.719853 4.195521 11.481731
-4.276565 -2.590559 5.113989
4.895863 1.015149 11.093292
-3.707811 -3.354421 7.441625
2.102814 -4.536317 7.331897
4.631976 -1.882763 4.413190
-2.060935 -4.555497 5.924114
-4.979109 0.456586 8.701275
-4.722473 -1.642633 10.243292
-3.693615 -3.370045 6.769374
3.526404 3.544640 6.266690
-3.762424 -3.293049 9.295544
2.473295 4.345436 1.119448
2.110551 -4.532723 1.737500
-4.957952 -0.647077 11.604125
0.065380 4.999573 3.340608
4.322111 -2.513833 8.322119
2.388398 -4.392671 2.549179
4.085123 2.883015 10.472829
2.698303 4.209413 0.605484
-4.264568 2.610261 11.851830
-3.825129 3.219998 3.029580
4.128423 2.820660 3.779545
-4.485316 -2.209511 1.910765
2.915308 4.062139 9.404964
2.623179 4.256634 4.539133
2.905910 -4.068868 0.459125
-2.562791 4.293263 2.966996
-2.222926 -4.478683 11.555652
0.379733 -4.985559 2.217239
4.699890 -1.706174 3.098935
2.925862 -4.054545 4.250294
3.629361 -3.439148 11.984471
3.064893 -3.950497 9.875013
-4.988538 -0.338358 2.460245
4.991278 -0.295197 5.545383
-4.284339 2.577681 7.525207
0.838602 4.929173 6.168986
-2.512738 4.322748 6.006041
1.483228 4.774938 7.154393
-4.765205 1.514205 3.990384
3.437161 -3.631243 0.550995
-3.896166 -3.133671 11.690210
-3.953966 3.060418 7.668197
3.056159 3.957258 2.697682
3.722607 3.337993 2.739132
-4.810409 1.363804 4.975049
4.487373 -2.205330 1.020719
-2.072906 -4.550061 4.793922
4.811749 -1.359070 2.919530
-1.229584 4.846455 2.838414
4.562346 2.045726 8.546098
3.739116 3.319490 5.549520
-0.113944 4.998702 5.061840
4.727934 1.626851 10.049766
-4.204203 2.706414 5.675516
0.154690 -4.997607 9.870393
4.819283 1.332107 4.575520
0.776331 -4.939363 2.480017
4.943721 -0.748076 3.879144
-3.029395 -3.977784 4.370229
0.426943 -4.981739 11.510016
-4.875311 -1.109659 7.479851
-3.988129 -3.015763 9.548961
0.177608 -4.996845 6.587843
-2.061535 4.555225 5.239243
-1.810793 4.660583 7.630419
4.807868 1.372736 6.973364
-3.864349 -3.172823 1.483663
2.598866 -4.271521 2.674469
-2.553867 4.298577 7.962306
1.086233 4.880584 2.211046
4.621101 1.909299 1.683208
2.650967 -4.239384 3.512028
-0.896545 4.918964 10.709447
4.914513 0.920629 4.776980
4.999124 0.093616 0.827231
4.977845 0.470170 5.740130
1.592758 -4.739528 5.053115
4.999872 -0.035739 5.714641
0.317422 4.989914 0.819052
-2.459729 -4.353129 11.452125
-4.844236 1.238295 8.871618
3.208185 3.835042 5.498282
4.999905 -0.030888 1.397819
-4.716489 -1.659739 7.082801
4.866945 -1.145795 4.197592
4.717449 -1.657007 5.076224
2.348531 -4.414114 10.097827
4.889892 1.043532 5.756871
4.315750 2.524738 11.658847
1.355460 4.812767 5.723785
4.009853 -2.986817 5.884301
-3.078169 -3.940162 11.762070
-1.659624 4.716529 1.060340
-4.802146 1.392620 6.126381
-0.822316 -4.931916 5.727202
-4.722223 1.643355 10.207508
2.953968 -4.034114 4.366491
2.424504 4.372846 7.581190
-4.926224 0.855757 0.865187
2.984498 -4.011580 5.781476
-3.939438 -3.079095 0.838529
4.610395 -1.935009 4.547677
-4.472202 -2.235936 8.742375
-3.138166 3.892546 4.286862
0.795785 -4.936266 4.653503
-4.243467 2.644426 5.277527
4.380046 2.411473 5.595872
-4.990792 -0.303304 2.306163
4.660534 -1.810917 4.497120
4.296954 2.556597 11.630553
-4.997606 0.154696 3.453104
-4.968029 -0.564528 10.918089
4.848329 -1.222171 3.611677
4.864708 1.155254 1.940274
4.895369 -1.017529 10.948866
2.290558 4.444473 11.998603
-0.925023 4.913688 6.854584
0.543139 4.970413 6.486438
3.139142 -3.891759 0.120774
3.980687 -3.025579 7.100126
4.784329 -1.452651 6.276808
4.991125 0.297784 5.185049
-4.948511 -0.715710 2.183351
-4.854343 -1.198063 4.667914
-2.706477 4.204162 0.113524
3.117677 -3.908976 6.449768
1.419440 4.794287 3.213449
-4.997877 -0.145702 9.900774
-3.163007 3.872387 11.709690
2.722457 4.193832 9.634305
-3.850430 -3.189700 7.581273
-4.410911 2.354542 1.889560
0.629865 -4.960168 6.146553
0.905737 4.917280 10.733962
-2.827010 -4.124077 1.216861
-4.384651 -2.403088 8.345468
3.807300 -3.241059 11.374991
4.997442 0.159923 9.129347
3.771829 3.282272 0.633610
3.670958 -3.394712 6.670482
0.791244 4.936996 10.377864
0.570481 -4.967349 5.759146
-3.886280 3.145922 7.724947
-2.890250 4.080007 8.545643
-1.801299 4.664260 9.679995
0.792692 -4.936764 3.185863
4.769223 -1.501502 11.382765
-0.970872 -4.904835 3.207308
3.415782 -3.651361 10.168873
3.499631 3.571076 5.023975
1.618761 -4.730710 7.414099
4.999010 0.099485 5.448243
-4.251716 -2.631142 10.755125
0.523822 -4.972485 10.329854
-1.938618 4.608879 11.490361
-3.523913 -3.547117 0.000305
4.991894 0.284589 6.777011
4.950430 0.702316 3.438135
0.921833 4.914288 4.714302
-4.575918 2.015186 8.202850
0.823392 4.931737 1.817087
-2.153686 4.512387 0.047926
-0.130111 -4.998307 8.857774
0.028161 -4.999921 5.819750
-4.708336 -1.682726 0.804950
4.858299 -1.181918 9.288396
2.975033 4.018604 7.533132
-4.200670 -2.711895 9.396738
4.809269 1.367820 8.109542
-4.201127 -2.711186 9.717425
4.430889 2.316728 6.887358
3.467523 3.602261 5.199873
3.966649 3.043961 3.436984
0.422435 4.982123 11.788366
2.145631 4.516223 9.118597
3.808044 3.240185 3.801691
-4.353273 2.459474 0.240130
-2.080929 -4.546398 8.275944
-1.972516 -4.594473 1.536343
-3.212091 3.831771 11.304486
-0.965015 4.905991 5.712272
4.712733 -1.670373 11.400972
-1.572001 -4.746453 2.172046
4.698701 1.709446 1.387440
-2.592914 -4.275137 0.648837
0.785179 4.937965 4.742354
0.222499 4.995047 10.695462
0.681711 4.953309 6.248939
4.702364 -1.699345 3.399420
-4.989534 -0.323338 1.934525
4.439576 2.300036 3.202052
-0.653879 -4.957060 2.656029
4.472003 -2.236334 4.681583
-0.667778 -4.955207 9.570858
3.911869 -3.114045 8.071484
3.442980 3.625726 8.518747
-3.965429 3.045549 10.626233
0.000224 -5.000000 11.573883
-0.828689 -4.930849 11.962347
-2.722485 4.193814 9.385391
-4.469362 2.241607 8.727554
-1.440074 4.788130 3.080599
0.670270 4.954870 8.649760
-2.924532 -4.055504 10.528642
-1.723091 -4.693714 11.540269
-3.974520 3.033676 2.651363
2.058319 4.556679 1.633501
-4.884567 -1.068180 1.211351
4.800576 1.398025 0.985638
1.715667 4.696433 8.204235
-4.647286 -1.844651 0.044637
-3.948414 3.067576 9.857861
1.741034 4.687089 3.861143
-1.963766 4.598219 4.356968
0.733567 4.945895 6.313605
0.468921 4.977963 4.317751
4.904271 0.973717 9.217915
-4.572692 2.022495 2.917787
-4.359954 -2.447612 2.164949
0.981933 -4.902633 0.976897
3.525758 -3.545283 3.233002
0.560186 4.968520 2.847322
3.731528 -3.328017 7.910480
-1.396567 -4.801000 1.536645
0.295543 4.991258 10.194575
4.426992 2.324164 0.498197
2.977837 4.016526 1.937382
1.093518 -4.878957 3.748117
-4.972024 -0.528182 10.498713
4.995729 -0.206617 3.388926
2.436361 -4.366251 7.070402
4.684389 1.748285 11.621892
-4.907435 0.957643 5.046223
4.516360 2.145341 4.242708
-4.537344 2.100597 4.218416
4.755919 -1.543126 6.220664
4.994457 -0.235361 4.083815
1.019620 4.894934 1.807484
2.071293 -4.550796 2.581783
-4.973167 0.517311 11.771867
3.192374 -3.848214 1.060272
-4.347575 2.469532 11.441118
0.788779 -4.937391 11.275660
4.102481 2.858260 8.405265
-1.766830 4.677426 1.744107
-2.659116 4.234277 0.122287
1.262612 -4.837955 11.347333
3.227395 -3.818890 1.371336
1.880102 4.633057 5.355934
1.903836 -4.623355 5.831083
3.342304 3.718737 8.147757
4.873107 1.119298 8.123065
-0.598267 4.964079 10.988991
